0.507485 -0.864145 -0.108916 
0.109871 -0.699251 0.595917 
1.124658 -0.491657 -0.202719 
-0.983320 1.198708 -0.276799 
-1.298076 0.010723 0.086642 
-1.248422 0.196807 -0.192936 
-1.059868 1.458946 -1.030651 
-0.527106 1.211993 -0.367013 
-0.139050 0.685313 0.025359 
-0.761027 0.031802 0.556322 
-0.855098 -0.436568 -0.206876 
-1.175827 0.710890 0.684208 
-0.209579 -0.570458 -0.677235 
-0.057921 0.534475 -0.427117 
-0.306999 0.546918 -0.374187 
-0.084435 -0.898036 -0.612027 
-0.445598 0.469114 -0.467509 
0.321166 0.748278 -0.014842 
-0.022668 -0.813762 0.299119 
0.741715 0.106529 -0.481240 
0.044161 1.425079 -0.607158 
0.657892 -0.241535 0.538707 
0.901205 -0.234127 0.295586 
-0.518069 0.184170 -0.564083 
-0.517423 1.344590 -0.135505 
-0.431791 0.541825 0.314812 
0.885463 0.254116 0.140576 
-0.496861 -0.543625 0.468339 
-0.893876 1.303521 -1.199448 
0.722981 0.454817 0.285959 
0.146560 -0.655230 -0.703668 
-0.849327 -0.012206 0.555529 
-0.656530 1.161913 -0.023396 
-1.026095 0.972945 0.545802 
-0.201946 0.012374 0.700832 
0.467260 -0.431310 -0.675785 
0.466839 -0.644300 -0.612597 
-1.022984 -0.186190 0.418203 
0.199169 0.420144 -0.532986 
0.943445 0.039760 -0.217558 
-1.303245 0.801392 -0.112889 
-0.035803 1.265095 -0.406002 
-0.857011 1.076884 -0.388461 
-0.107978 -0.108890 -0.853126 
-0.625819 -0.368329 0.422698 
-1.147776 0.854201 -0.268670 
0.161782 0.699747 -0.240011 
-0.132458 1.486359 -0.470718 
0.749513 -0.659582 -0.304861 
-0.261643 1.268383 -0.452041 
-0.741976 1.197250 -0.206821 
-0.235489 0.118868 -0.671868 
-1.059818 0.069952 0.475979 
-0.204986 -0.897602 -0.638165 
-0.357800 1.112585 -0.219023 
0.767189 -0.509067 0.416633 
0.551201 0.186743 0.583216 
-0.923951 -0.392412 0.224738 
-0.199932 0.589660 0.268026 
0.964415 -0.624847 -0.282280 
0.579897 -0.652172 0.475003 
-0.904882 0.677526 0.599121 
-0.599833 1.128185 -0.039536 
0.246675 0.256221 -0.567694 
-1.200360 0.469629 -0.225834 
-1.033542 0.772639 -0.330468 
0.395578 -0.204382 0.721262 
0.548526 -0.627769 0.503804 
-0.127942 -0.814440 -0.467513 
0.043960 1.460234 -0.635774 
-0.249718 1.393523 -0.371407 
-0.954900 1.572863 -1.111663 
-0.864916 1.287541 -0.695529 
-0.593033 0.991537 -0.100647 
0.588000 0.641749 -0.004799 
-1.104146 -0.272096 -0.163093 
-0.126370 -0.072581 0.770403 
0.388878 -0.266581 -0.734857 
1.175574 -0.301924 0.143648 
-1.282616 0.935734 0.428996 
0.575191 -0.159016 0.638018 
-1.297456 0.408725 0.023668 
0.388625 0.727874 -0.098608 
-0.545167 -0.719656 -0.438304 
-0.619594 0.758930 -0.160454 
-0.953963 -0.300691 -0.329006 
-0.693632 0.541859 0.389380 
0.705698 -0.872129 -0.068373 
-0.566076 0.458620 0.380076 
-0.936879 0.493311 -0.352959 
0.680109 -0.852994 0.156313 
0.197134 0.233235 0.578081 
-0.422208 1.389119 -0.426430 
0.129132 -0.290530 -0.795992 
0.043332 -0.810474 -0.436688 
-1.356734 0.461097 0.073749 
-0.949407 -0.892901 -0.046955 
-0.547783 0.319222 0.486308 
-1.314457 0.099913 0.090784 
0.451996 0.710551 -0.007898 
0.480902 0.130130 0.610733 
-1.348402 0.737525 0.280877 
-0.401774 1.198645 -0.134697 
-0.256552 1.150632 -0.279244 
-0.712116 -0.730491 0.562017 
-0.227738 0.505503 0.357226 
-0.334552 -0.893529 0.058136 
-1.128360 1.135173 -0.071155 
-0.721453 0.888429 0.288924 
-0.827213 0.059227 -0.523150 
-0.631180 -0.821568 0.570205 
0.019511 0.723371 -0.003452 
-0.582069 -0.404774 -0.421996 
0.564316 0.184348 -0.562992 
-0.861970 -0.360625 0.336315 
0.640867 0.598479 0.103554 
0.163309 0.712041 0.234459 
-0.973852 0.956535 -0.452736 
-0.919710 1.129122 0.330300 
-0.884347 -0.685265 -0.123877 
-0.621744 0.350482 -0.520182 
0.653178 -0.083718 -0.579739 
0.387785 -0.882717 0.176753 
-0.416510 1.438357 -0.409935 
-0.295559 -0.898160 -0.584861 
-1.307706 0.200243 -0.008004 
-0.936099 -0.770602 -0.016871 
-0.238828 -0.615116 0.553669 
-0.239875 1.213697 -0.405919 
-1.013625 1.104095 0.383988 
-1.178689 0.079939 0.354816 
0.884778 -0.413439 -0.261015 
-1.223742 -0.107554 0.175645 
-0.275119 0.446281 -0.474143 
0.156785 0.660799 -0.313187 
0.855728 -0.132862 0.377199 
0.672926 0.570505 -0.093234 
-1.249011 0.495231 -0.191608 
0.754936 0.106129 0.479697 
-0.616354 0.968383 -0.166085 
-0.726519 0.180180 0.527886 
-0.323332 -0.707065 -0.669026 
-0.022476 0.007268 0.762106 
0.688486 -0.356222 -0.529908 
-0.302174 0.644442 0.093348 
1.107314 -0.443160 -0.228384 
1.000920 -0.735026 -0.097975 
-0.051370 0.269800 -0.593340 
0.436525 0.427159 0.453934 
0.538697 -0.285481 0.634746 
-0.402544 -0.874368 0.068614 
-1.317455 0.521574 0.564645 
1.207277 -0.318332 0.014676 
-0.916461 -0.894533 -0.319750 
-1.102031 -0.205589 -0.313616 
1.166896 -0.425018 0.204979 
0.031654 -0.871522 0.613387 
-0.681146 1.095959 -0.260712 
-0.670355 -0.524660 0.076686 
-0.836051 1.049719 -0.225750 
-0.891584 1.493001 -1.082884 
-0.248326 -0.072608 -0.821104 
0.003936 0.722383 0.032097 
0.601313 0.163079 -0.550958 
-1.356702 0.713730 -0.023018 
-0.944229 0.745417 0.592863 
0.224254 -0.165626 0.765075 
-0.046809 1.319317 -0.524212 
0.161181 0.191493 0.671121 
-0.621404 0.797977 -0.123495 
-0.330681 -0.025222 -0.692907 
0.795251 -0.554484 -0.315462 
0.033052 0.308554 -0.583518 
0.653611 -0.878093 0.063528 
-0.977386 -0.896714 -0.127965 
0.135718 0.170240 0.694173 
-0.572752 0.543450 -0.432136 
-0.551125 1.177448 -0.092059 
0.218779 0.455788 -0.525790 
-0.068970 -0.895732 -0.566330 
-0.755663 0.698473 0.442821 
-0.227030 -0.761247 0.709133 
-0.160472 -0.044829 -0.844185 
0.775482 0.301839 0.337696 
-0.025474 0.064747 -0.816907 
0.883909 0.165283 0.259307 
0.501853 -0.575717 0.587807 
-0.451095 0.461289 0.372152 
-0.435623 -0.868058 0.213745 
0.167290 0.190616 -0.657988 
-0.294934 -0.474387 -0.591204 
0.511269 -0.785680 -0.520317 
0.122944 -0.893869 -0.569653 
-1.169095 0.019235 0.367088 
-0.024001 1.340023 -0.553896 
-0.177694 0.674784 0.014958 
0.146742 0.557680 -0.413825 
-0.445806 0.134313 0.529141 
0.552490 -0.095909 -0.643841 
-0.150932 0.028236 0.729087 
0.716258 0.379049 0.359082 
-0.710321 -0.901356 -0.225448 
-0.660871 -0.551801 -0.339741 
-0.262105 1.264368 -0.264040 
-0.533765 0.379917 0.447634 
0.104478 -0.810802 -0.222347 
-0.852498 1.137863 -0.716548 
-0.365848 1.402507 -0.247277 
-0.285563 1.580215 -0.349697 
-0.390751 -0.899997 -0.622947 
-1.211695 -0.173413 0.073168 
-0.336778 -0.462869 -0.484216 
-0.450783 0.078501 -0.594485 
-0.705082 -0.763181 -0.364107 
-0.961358 0.243123 -0.450672 
-0.954945 -0.835983 -0.288892 
0.752027 -0.083489 0.500875 
-1.318911 0.782358 0.339501 
-1.248114 0.045249 -0.209382 
-0.020256 0.211636 0.586501 
0.439781 0.678136 -0.210652 
0.012001 1.456893 -0.670914 
-0.149093 -0.816128 0.701750 
0.256784 -0.808058 0.261564 
-0.087783 -0.684343 -0.681796 
-1.135366 0.962788 0.543388 
-0.629997 -0.765519 -0.386320 
-0.630457 1.078722 -0.271454 
-1.246501 0.288427 -0.148061 
0.535291 0.671603 0.010938 
0.753724 -0.559768 -0.363751 
0.143844 0.171870 -0.697828 
1.040769 -0.230967 0.083492 
0.314859 -0.027113 0.750318 
-0.224756 -0.436692 0.494969 
-0.766077 0.957472 -0.231533 
-0.549790 1.116433 -0.316487 
0.827427 0.127175 -0.373228 
0.785312 0.335004 -0.319385 
-1.110828 1.156115 -0.453772 
0.517001 -0.709136 0.522644 
-1.287716 0.409285 -0.032515 
-0.084416 -0.094118 0.766962 
1.016607 -0.733530 -0.054801 
0.964746 -0.386717 -0.225161 
-0.346323 -0.362196 0.464237 
-1.335484 0.826143 0.113371 
-0.940864 0.966003 -0.470869 
0.701024 -0.806666 -0.232972 
0.141010 0.526005 -0.445867 
-0.650148 0.627687 0.351081 
-1.275146 0.785868 0.556867 
0.797599 -0.380243 -0.424044 
-0.545968 -0.578630 -0.379427 
-0.003099 0.151110 -0.740419 
-0.418081 0.164876 -0.581232 
-1.227005 -0.147693 -0.114089 
-0.041816 1.373451 -0.466979 
-0.462254 1.052821 -0.214505 
-0.250391 -0.900061 -0.636129 
-1.073007 1.057214 -0.565743 
-1.013019 0.901110 0.592217 
-1.035803 -0.368220 0.116781 
0.195182 -0.469197 0.728366 
-0.507444 1.101931 -0.316640 
-1.019499 -0.838171 -0.141972 
0.654274 0.593557 -0.012905 
-1.023687 1.165396 0.074043 
-0.027095 1.471861 -0.654018 
-1.310254 0.184434 0.102790 
-0.609230 -0.854480 -0.430931 
0.196288 0.203419 0.648068 
-0.689085 -0.546273 0.012695 
-0.757234 -0.901361 -0.260767 
-0.101355 0.526235 -0.424108 
-1.362964 0.540049 0.334298 
-0.444971 0.668190 -0.233543 
-0.532976 0.055788 -0.575088 
-0.450562 -0.634664 0.466206 
-0.717975 -0.624762 -0.002958 
-0.596200 -0.896849 -0.436028 
-1.277315 0.654830 -0.208229 
0.695695 -0.633075 -0.387360 
-0.322528 1.233311 -0.200727 
0.580430 -0.324906 0.579935 
0.374660 -0.677450 0.585277 
-0.933482 0.933565 -0.376586 
0.790031 -0.073177 0.454103 
-1.320941 0.782986 0.418780 
-0.247196 0.378899 -0.534410 
-0.127963 0.671853 -0.140134 
-1.305641 0.454761 -0.095633 
0.868522 0.031840 0.341848 
-0.855635 -0.391126 -0.291267 
0.380392 0.672031 -0.266628 
-0.614886 0.459312 0.378535 
-0.824223 -0.304632 0.418448 
-0.225293 -0.319282 0.540767 
0.223380 0.558935 -0.426530 
0.403403 -0.885732 -0.373743 
-0.413003 -0.191659 -0.517383 
-0.716489 -0.899928 -0.041190 
-0.834646 -0.691377 0.334203 
-1.152321 -0.253193 -0.107010 
-0.902448 0.741369 0.535162 
-0.344604 1.258362 -0.233552 
-0.047525 0.192464 0.609703 
-0.717308 -0.696440 0.062435 
0.407705 -0.325356 0.703293 
-0.092242 1.580142 -0.627583 
-0.944228 1.159587 -0.007522 
-1.256504 0.833125 -0.161629 
-1.034192 -0.283250 -0.278869 
-0.837074 0.611523 0.521549 
-0.831879 -0.352296 -0.343411 
0.558139 0.147332 -0.571999 
0.519319 0.292450 -0.516652 
0.749946 -0.224999 -0.494712 
0.955228 -0.042001 -0.143510 
1.153054 -0.362009 0.214502 
-0.408391 -0.116216 -0.561272 
-1.022918 0.265707 -0.413985 
-1.122369 0.174726 -0.370068 
-0.585512 1.364535 -0.180202 
-0.869966 1.459038 -1.232956 
-0.150521 0.676997 -0.081785 
-0.953490 0.739076 -0.345432 
-1.323329 0.778201 -0.085630 
0.161014 0.292410 0.544639 
-0.393257 -0.884570 0.419056 
0.876914 0.287834 0.115815 
-0.902851 -0.711531 -0.187589 
0.117415 0.585807 0.410408 
0.552667 0.445234 -0.427075 
0.167902 -0.858639 -0.463961 
-0.867443 1.159433 -0.426161 
0.471345 0.527581 0.398539 
0.009409 -0.847121 0.644841 
-0.358561 -0.123156 -0.676098 
-1.210675 -0.081753 -0.230114 
-1.163229 1.128811 0.240479 
-0.145419 1.213206 -0.374679 
-0.073018 -0.820628 0.071886 
-0.370230 -0.777372 0.638448 
0.860099 -0.307437 -0.373613 
-0.784365 0.449444 -0.452456 
0.159642 0.213109 0.638976 
-0.357907 1.530785 -0.310490 
0.090361 -0.412679 -0.792864 
-1.312909 0.200145 0.067224 
-0.138087 -0.718360 -0.667447 
-0.901555 0.565244 -0.346909 
-0.306163 -0.250638 -0.733984 
0.401360 0.011323 -0.715769 
-0.294257 -0.594037 0.461037 
-0.478528 -0.464594 -0.397023 
0.435279 -0.030477 -0.703915 
-0.619472 -0.470308 -0.391794 
-0.086865 0.339711 -0.563326 
-0.352569 -0.230681 0.489145 
-1.280491 0.747825 0.568024 
0.622629 0.617456 0.041510 
-0.933633 1.305796 -0.530600 
-0.796846 -0.488233 -0.020294 
0.203533 0.380096 -0.539062 
-1.182980 0.821887 -0.237436 
-1.105385 1.120868 -0.202581 
0.691696 0.549232 0.150900 
-0.533597 -0.625983 -0.380900 
0.937736 0.139820 0.088416 
1.046416 -0.551236 -0.263255 
-0.594754 0.161046 0.535815 
-0.249990 1.574065 -0.331649 
-0.076910 1.369888 -0.448144 
-0.321444 1.337795 -0.472002 
0.247918 -0.436709 -0.744996 
-1.023203 -0.006362 0.490231 
0.359288 0.466167 0.454752 
0.508132 0.490795 0.409582 
-0.994799 1.462281 -1.103301 
1.132545 -0.525253 0.224286 
-0.384164 1.503965 -0.275459 
-0.274843 0.105455 -0.643693 
0.238113 0.388190 0.516439 
-0.105742 1.225968 -0.387715 
-1.222601 -0.094327 -0.151791 
-1.037769 1.173316 -0.722906 
-1.259738 0.406848 0.454879 
0.471209 0.572331 0.358150 
0.435325 -0.846784 -0.548502 
0.041777 0.030134 -0.817143 
-0.817458 -0.861613 0.564249 
0.662382 -0.306237 0.522352 
-0.045026 -0.405911 -0.818855 
-0.430879 -0.153682 -0.523224 
0.632203 -0.557713 0.491004 
0.749151 0.492324 0.138885 
-0.285985 1.458919 -0.494009 
-0.563157 -0.369708 0.469130 
0.332464 -0.105551 -0.756370 
-0.232931 0.656728 -0.063233 
0.476630 -0.781345 0.540927 
0.896276 0.178055 0.225213 
-0.117895 0.047956 0.735717 
-0.861829 1.298928 -0.783472 
-0.351697 0.019999 -0.621622 
-0.811141 0.796619 0.419102 
0.163607 -0.807803 -0.243239 
1.092586 -0.581009 -0.205500 
-0.661758 -0.501416 0.334323 
-0.879393 0.359286 0.449603 
0.423096 0.121351 -0.638106 
-0.891051 1.157550 0.222976 
-0.777559 -0.213703 0.504615 
0.655402 0.009340 0.566738 
0.739232 -0.867636 -0.049020 
-0.831115 0.964163 -0.265531 
-0.375921 -0.159537 -0.636630 
-1.133986 0.412542 0.571404 
-0.095455 0.479196 -0.475513 
-1.026692 -0.237679 0.372662 
-0.846774 -0.285272 -0.433172 
-0.385854 -0.341327 0.489717 
-0.343443 1.394573 -0.469997 
-0.456233 -0.743924 -0.636619 
-1.028850 0.568305 -0.336045 
0.350581 0.702737 0.247291 
-0.257495 -0.819692 -0.189342 
-1.340010 0.741300 -0.059546 
-0.847587 0.256340 -0.506348 
-0.744009 -0.889985 0.256949 
-0.678823 0.741237 -0.255588 
0.252887 0.402543 -0.536969 
0.095941 -0.325249 -0.796973 
0.505044 -0.877490 0.224497 
0.932831 -0.518521 -0.298393 
0.711236 -0.171772 0.531970 
0.586368 -0.504928 -0.625357 
-1.048671 0.390213 -0.343327 
0.685546 -0.644138 0.413824 
-0.924409 1.112795 -0.992719 
-0.394726 1.353141 -0.235175 
-0.913797 0.878411 0.511114 
-0.144051 1.624945 -0.444041 
0.349450 -0.443207 -0.706165 
-0.901967 -0.014034 0.551457 
-1.108895 -0.308869 0.023630 
0.381578 0.192336 -0.583868 
0.047141 0.061498 0.756455 
-0.602540 0.002754 0.558683 
0.243939 0.526718 0.451697 
-0.849843 1.257803 -0.716368 
-0.677649 -0.757329 0.570726 
-1.009835 1.431113 -1.059552 
0.451094 -0.878774 0.287256 
0.352561 -0.598670 0.662634 
-1.066741 0.390227 0.539269 
0.223277 -0.704182 0.594969 
-0.869666 -0.762451 0.246864 
0.619261 0.582403 -0.191296 
-0.910393 0.200403 0.507366 
-1.028621 -0.387067 0.080450 
-1.049469 0.405249 0.570213 
-1.043455 -0.368953 -0.074490 
-0.564324 -0.843125 0.555620 
0.128285 -0.555817 -0.739823 
-0.003770 1.610505 -0.677113 
-0.370939 0.633387 -0.246038 
-0.707380 -0.901423 -0.319531 
0.776431 0.135218 0.445156 
-0.883524 1.036170 -0.616883 
-0.936788 -0.445574 -0.020780 
-0.381485 -0.120108 -0.614510 
-0.967078 1.029853 -0.750248 
0.578055 0.333370 0.467274 
0.262915 0.363708 -0.537999 
-0.405318 1.227593 -0.167927 
0.503692 0.211290 0.588186 
-0.522052 0.696016 0.058744 
-0.193523 1.219316 -0.239618 
-0.075491 -0.816412 0.264179 
0.966501 -0.121930 0.137530 
0.654731 0.590272 0.068214 
-0.328295 -0.880320 0.170710 
0.999154 -0.642393 -0.251062 
0.325497 0.063320 0.715539 
0.755963 -0.264585 -0.489115 
-0.343329 0.161033 0.551381 
-0.852617 0.965902 -0.298326 
0.923017 0.025414 0.234320 
0.054191 -0.815158 -0.126783 
-1.208363 1.053280 0.370400 
-0.688194 -0.158127 0.530474 
-0.789190 0.811503 -0.299831 
0.245399 -0.101702 -0.780179 
0.122465 -0.468347 0.717089 
-1.039464 1.160173 0.199960 
0.601329 0.047549 0.602148 
-0.591583 -0.712714 -0.378166 
0.452526 0.709595 -0.050734 
0.331522 0.075354 -0.726058 
0.647745 -0.735072 0.394971 
-1.203609 -0.130057 -0.185117 
1.057819 -0.473717 0.304795 
1.064886 -0.576764 -0.235798 
0.062802 0.629534 -0.353430 
-0.313272 -0.818880 -0.273414 
0.097468 -0.816267 0.162072 
-0.383297 0.424553 0.395451 
0.610420 -0.878903 -0.133400 
-0.909527 1.211706 -1.139351 
0.406391 -0.066316 -0.712488 
-0.808641 0.592103 0.497570 
-1.110634 0.359049 -0.307593 
-0.464419 1.456375 -0.249471 
-0.933321 1.514442 -1.199591 
-0.467177 0.392649 -0.512023 
-0.276923 0.044795 0.576509 
-0.966352 -0.049965 -0.492114 
-0.978901 -0.756526 -0.113294 
-1.216092 -0.008399 -0.266464 
-0.706731 -0.577215 -0.005423 
-0.026262 -0.734663 0.653643 
0.718637 -0.784892 0.266314 
0.819467 0.275486 -0.322238 
0.131509 -0.803014 0.399217 
0.246980 -0.834469 -0.429393 
-0.855200 1.202734 -0.833474 
-0.888686 1.188321 -1.003612 
0.501866 0.164782 0.596385 
-1.094151 0.205517 0.416780 
-0.853474 1.262455 -0.899302 
0.912844 -0.263023 -0.262543 
-1.361237 0.579653 0.519127 
-1.038185 -0.079298 -0.454292 
-1.013795 -0.001753 -0.470905 
1.169344 -0.315892 -0.117886 
-0.030131 0.100333 -0.790673 
0.364514 -0.888038 -0.471938 
-0.077017 -0.301689 0.720822 
-0.887779 1.270693 -0.552431 
-1.335666 1.060341 0.126867 
0.312159 0.743257 0.113629 
0.966031 -0.040982 0.019570 
-0.861641 0.484136 -0.393477 
-1.227425 0.707732 -0.248756 
0.415001 -0.429360 -0.692816 
1.104730 -0.661838 0.088183 
-0.729829 -0.566468 -0.034189 
0.649394 -0.837113 0.219318 
-0.007361 1.316481 -0.528345 
0.842099 -0.382397 0.376910 
0.109978 0.447342 0.498124 
-0.034795 -0.327006 0.710452 
-0.511847 -0.765967 0.523041 
0.612364 -0.321939 0.553004 
0.291015 -0.445694 0.730271 
0.551825 0.301993 -0.494715 
0.616782 -0.785384 0.380858 
-0.471793 -0.881727 0.237346 
-0.459773 -0.174008 0.519873 
-0.060240 -0.809969 -0.402206 
-0.977343 0.547181 0.691560 
-0.978821 0.044666 -0.478911 
0.506475 0.687048 0.037341 
0.307146 -0.855861 0.233653 
-0.164137 -0.822678 0.008940 
-0.926572 1.339277 -0.623912 
0.687716 0.537466 0.219074 
-0.583166 1.290969 -0.329518 
-0.214350 -0.815743 0.714061 
-0.228955 1.288770 -0.463180 
0.370212 -0.142453 -0.740679 
0.363971 -0.872281 0.535408 
1.153789 -0.597151 -0.068924 
-0.637388 0.750126 -0.209499 
-0.139312 0.540810 -0.392806 
0.491478 -0.227630 0.672700 
-0.442980 0.689517 -0.009766 
-0.277440 -0.447090 -0.663416 
0.247725 -0.890200 -0.509067 
-0.783514 -0.897998 0.052040 
0.966734 -0.260968 -0.139392 
0.154128 0.730733 -0.151090 
-1.201780 0.105733 0.329430 
-0.825380 1.155904 0.164270 
0.801723 -0.677121 -0.299993 
-0.872029 0.951993 -0.332120 
-0.911538 1.565498 -1.155567 
-1.009711 1.163437 0.036941 
0.943565 0.058207 0.161556 
-0.506009 0.283354 -0.548365 
0.735782 0.291906 -0.411762 
0.807253 0.082608 0.430065 
-0.115500 -0.416853 0.658623 
-0.668395 -0.428276 -0.375102 
0.612603 -0.729857 0.453777 
1.078001 -0.667323 -0.108568 
0.768151 0.474893 -0.069542 
-0.915617 -0.438690 -0.118406 
0.309820 -0.834831 -0.399468 
-0.713491 -0.727324 0.132385 
-0.908320 -0.812344 0.054046 
1.212088 -0.360405 0.091426 
-0.949802 -0.898886 -0.167708 
0.573102 -0.876446 0.110764 
0.562395 -0.747249 -0.433241 
-0.883819 -0.774813 0.467433 
-0.594255 -0.376544 0.446042 
0.259208 -0.175521 0.748942 
0.416709 -0.285811 0.698922 
0.273768 -0.890405 -0.017593 
-1.091956 1.002782 -0.310816 
-0.831434 0.657994 0.505559 
0.741054 -0.582231 0.392509 
-1.045853 -0.172041 -0.388297 
-0.866176 -0.100341 0.532034 
-0.486312 0.637382 0.180994 
-0.818771 0.297516 0.492613 
-1.071756 1.087040 0.402800 
0.172433 -0.849430 -0.073470 
-0.774734 1.147013 0.114707 
1.193937 -0.499287 0.111916 
0.104149 -0.809013 -0.271284 
-1.197461 1.045649 -0.150352 
0.682125 -0.476279 -0.518284 
-0.020968 -0.234683 0.743688 
-0.253529 0.399348 0.438260 
-0.853272 -0.783859 0.209246 
-0.309547 0.079886 -0.621900 
0.002722 1.433368 -0.542103 
-0.907910 1.262355 -1.177464 
0.510929 0.578977 0.341503 
-0.580149 -0.639305 -0.366149 
-1.089192 1.106587 -0.390960 
-0.598155 0.733258 0.214247 
-0.949537 1.548834 -1.191520 
-0.474423 -0.778483 -0.648653 
-0.503707 -0.883937 0.362536 
0.868845 0.307827 -0.159229 
-0.248951 1.160176 -0.318085 
-0.008766 -0.086231 -0.849628 
-0.863185 0.662945 0.542847 
-0.871972 0.790845 0.458687 
0.210823 0.697098 -0.243495 
0.776688 -0.848372 0.055747 
-0.533350 -0.252630 -0.498620 
-0.585344 -0.440811 -0.408669 
-0.251475 -0.152682 0.615144 
0.667635 -0.877466 -0.069702 
-1.062816 1.203669 -0.661773 
-0.126965 -0.816113 -0.282801 
-0.655687 -0.193439 0.524921 
-0.344214 1.436848 -0.258395 
-1.048920 0.111227 0.479434 
-0.228098 -0.372964 -0.751710 
-1.158411 0.530521 -0.273497 
0.564103 -0.198173 -0.643570 
-0.359205 -0.428932 -0.451798 
-0.865389 -0.687174 -0.164776 
-1.045489 1.002123 0.522554 
0.087686 -0.735759 0.612738 
0.772505 0.247375 -0.402939 
0.902700 0.142036 -0.246783 
-0.278323 1.555023 -0.456347 
-0.997070 1.074654 0.433637 
-1.169340 1.006945 0.470842 
-0.951605 0.788493 0.584066 
-0.419929 0.583736 -0.360849 
-0.600307 -0.899529 -0.265789 
-0.900184 0.814981 0.492061 
-0.311995 -0.506409 -0.534967 
0.265176 0.182155 -0.631809 
0.009194 -0.393714 0.733271 
0.088446 0.714044 -0.183595 
-0.644554 0.902421 0.055357 
-1.166399 0.377684 -0.233121 
-0.383233 0.600987 -0.324024 
-0.189305 0.243243 -0.600757 
-0.507752 -0.893376 -0.259041 
-0.141550 1.585024 -0.460045 
-0.454317 -0.423291 0.494923 
-0.859182 1.344931 -1.218927 
0.717553 -0.445845 -0.502385 
-0.532902 -0.730788 -0.496296 
0.314215 -0.888611 -0.468433 
-0.964005 1.406339 -0.747844 
0.950334 -0.143411 -0.199475 
0.136022 0.225829 0.594438 
0.361039 0.643626 -0.316723 
-0.820047 -0.185889 0.511522 
-0.519153 1.022606 -0.160057 
-0.858523 0.992958 -0.327964 
0.334457 -0.883028 0.172290 
-1.127373 -0.220631 -0.265622 
-0.559135 -0.305088 0.490689 
-0.409289 0.076226 -0.600208 
-1.231918 0.432164 -0.161395 
0.686204 -0.407639 0.512121 
-1.020790 1.361592 -0.979081 
1.131958 -0.632338 0.100986 
-0.170512 0.142505 0.598353 
0.280808 -0.715205 0.582286 
-1.108453 1.334748 -0.649760 
0.165329 0.563462 0.433446 
-0.848866 -0.671919 -0.115334 
-1.162583 0.150553 -0.338588 
-0.650140 0.547446 -0.422018 
-0.164207 -0.680068 0.672773 
-0.745308 1.064408 0.296959 
0.597290 0.087021 0.594694 
0.325522 -0.808291 0.566250 
-0.759627 1.110232 0.295294 
0.127302 -0.837776 -0.457869 
-0.931724 0.532052 -0.346859 
-1.381110 0.680167 0.061881 
0.061112 0.260287 -0.595986 
-1.145428 -0.275751 0.077254 
-0.412237 0.254716 0.492231 
-0.550036 1.123657 -0.066997 
0.726782 0.203887 0.452043 
0.959147 -0.043276 0.119339 
-1.361232 0.571659 0.304595 
0.202885 0.037619 0.748715 
-0.010401 0.593206 0.376617 
1.153377 -0.461545 -0.175485 
-1.338908 0.949380 0.240700 
0.169699 -0.876687 0.480238 
-1.233244 0.379726 0.202367 
-0.968348 -0.436115 0.007345 
0.550702 -0.678946 -0.540442 
0.841648 -0.412656 -0.358019 
-0.052411 -0.817288 -0.196457 
-0.334470 1.208677 -0.165996 
-0.372798 0.202534 -0.580867 
-0.443739 1.228144 -0.174047 
-0.151544 1.251740 -0.285566 
0.104375 0.624387 -0.366268 
-0.052927 0.684772 -0.169558 
-0.725732 -0.640317 0.384734 
-0.658302 0.256332 0.502698 
-0.195845 -0.301984 -0.815623 
-0.419315 -0.696759 0.499241 
-1.313449 0.592035 -0.133483 
0.352309 0.738472 -0.071939 
-0.503264 1.272107 -0.127782 
0.305125 -0.684717 0.619489 
1.142888 -0.511757 -0.165736 
-1.266868 0.076766 0.242356 
-0.902342 -0.728773 -0.020280 
0.537202 -0.331881 0.622001 
0.529781 -0.057449 -0.655978 
-0.736711 -0.608976 -0.262308 
0.961022 -0.093398 -0.147053 
-0.251107 -0.440875 0.457118 
-0.195691 1.188752 -0.266585 
-0.687315 1.272917 -0.228071 
-0.027161 -0.895788 -0.577303 
-0.317212 -0.844290 0.679195 
-1.088421 -0.156297 0.373222 
-0.393386 1.120759 -0.322994 
0.388730 0.617588 -0.343076 
0.000716 1.299129 -0.487721 
0.704864 0.507625 -0.213940 
-0.550612 -0.869736 0.530868 
-0.904143 1.136433 -0.150382 
-1.276241 0.965167 0.402187 
-0.565328 0.125631 -0.569575 
0.230445 -0.875078 0.124038 
1.128564 -0.287673 0.183563 
-0.158424 -0.808446 0.412418 
-0.387468 1.156746 -0.367221 
-1.236653 1.001033 -0.096851 
-0.400381 -0.561634 -0.371298 
0.587583 0.015600 -0.603968 
-0.351461 -0.607946 -0.410036 
-1.047364 1.148479 -0.147106 
-0.809945 -0.023364 0.549031 
0.828768 0.392145 -0.065558 
-0.915148 0.277018 -0.468200 
0.868144 0.083073 -0.359224 
0.507159 -0.642677 -0.589803 
0.034785 -0.740003 0.634987 
0.435061 -0.888578 -0.202462 
-0.349071 -0.497503 0.436842 
0.167839 -0.891341 -0.529593 
-1.115796 0.108791 -0.398902 
-0.886699 0.507972 -0.363560 
-0.863237 -0.414482 0.224623 
0.333231 0.329440 -0.538832 
-0.529747 0.479394 -0.459895 
1.055525 -0.408287 0.295740 
-0.234649 -0.534949 -0.674347 
-1.200908 0.275293 0.288668 
-0.908970 -0.059904 0.540868 
-1.038409 0.318991 0.431068 
-0.389169 0.680067 -0.019991 
-0.601924 0.494055 -0.455479 
0.374008 0.228435 -0.573346 
-0.395069 0.057971 0.543761 
-0.402383 -0.672072 -0.571600 
0.260508 -0.869757 -0.589122 
0.052036 -0.816192 -0.073152 
-0.485589 0.481321 -0.456114 
0.171542 0.736848 0.136986 
-0.844047 -0.329534 0.388059 
-1.090282 -0.238059 -0.293494 
-0.866063 -0.711768 -0.020269 
-1.051214 0.898909 0.601836 
0.212330 0.504454 0.471590 
-1.161100 0.294629 -0.289536 
-1.026119 0.440493 0.637324 
-0.893997 1.013435 0.452927 
0.224853 0.668065 -0.296829 
-0.889418 -0.901567 -0.211155 
0.537948 0.464126 0.411082 
-0.736433 -0.680054 0.510311 
-0.615687 0.820870 0.092511 
0.461931 -0.542886 0.615073 
-0.881981 1.555300 -1.200891 
-0.808613 -0.668231 0.409665 
0.930463 -0.564515 0.349450 
-1.208991 0.075669 -0.298802 
0.779530 0.397419 -0.252732 
-0.578412 0.751555 0.124303 
-1.373669 0.564795 0.470898 
-0.351002 -0.324492 0.475330 
-0.806075 -0.823761 0.575514 
0.943473 -0.178286 0.208757 
-1.010592 1.001151 -0.587256 
0.501538 -0.388516 0.630444 
-0.114439 -0.821760 0.056721 
0.903039 -0.077101 -0.308209 
-0.036020 -0.437490 0.707171 
0.803972 0.385443 0.229685 
-1.103822 0.910062 0.596460 
0.014863 -0.343874 -0.807339 
-1.057346 -0.344666 -0.126444 
-0.826671 0.436409 0.414987 
0.121919 0.221178 -0.599415 
-0.548049 -0.776800 -0.554770 
0.965344 -0.052752 -0.100217 
-0.133667 -0.818510 0.241355 
0.951252 0.075099 0.069849 
0.841714 0.025690 0.387535 
-0.936757 0.910989 0.536904 
-0.607279 0.116163 0.542279 
-0.823543 -0.107404 0.529196 
-1.220674 0.453200 -0.192121 
-0.100283 0.161955 0.642470 
0.666935 0.572908 0.131830 
-1.338932 1.050197 0.079224 
-0.036033 -0.814978 -0.234447 
-1.262118 -0.100528 0.008593 
-0.403799 -0.896813 -0.104351 
-1.206315 0.032802 -0.290212 
0.639619 0.224188 -0.501925 
-0.418970 1.161401 -0.135597 
-0.107522 1.471348 -0.598014 
-0.905668 1.387240 -0.872291 
0.357462 -0.630839 0.639074 
-0.763135 0.372262 -0.495273 
0.637259 0.522711 0.304507 
0.959104 0.041286 0.016383 
-0.358530 0.144489 -0.594891 
-1.074787 1.166075 -0.264033 
0.540027 0.116088 -0.587889 
0.397240 0.730753 0.048970 
-0.955635 1.210449 -1.116327 
-0.624702 0.987773 -0.049855 
0.845724 -0.293911 0.379947 
1.215842 -0.444795 0.025247 
-0.758366 -0.729753 0.558475 
-0.022131 -0.817384 0.217203 
-1.002198 1.290945 -0.435329 
0.895424 0.100988 -0.302035 
-1.241601 0.918034 -0.125709 
0.262518 -0.022923 0.762623 
-0.224565 -0.425871 -0.737353 
-0.703650 0.959002 -0.210167 
-0.678443 -0.900197 -0.071290 
0.101274 -0.520840 0.709493 
0.399949 -0.369520 -0.709968 
0.578467 0.095365 -0.581111 
-0.148341 0.450171 -0.499769 
-0.293312 -0.412981 -0.647609 
0.862261 -0.817909 -0.056196 
0.264951 0.748366 -0.070288 
-0.983064 1.036418 -0.802470 
-0.777946 0.034596 -0.557105 
-0.837025 1.414190 -1.180331 
1.001358 -0.270932 -0.126210 
-1.095164 0.694805 0.696815 
-0.017678 0.193035 0.634443 
-1.032707 1.123743 -0.789891 
-0.312567 1.375970 -0.484268 
0.226026 -0.883186 0.078800 
-0.498423 0.322207 -0.539524 
-0.464799 0.018858 0.532864 
-0.199170 1.205124 -0.386850 
0.129553 -0.814969 0.192208 
-0.946249 1.308336 -1.128047 
-0.488473 -0.221437 -0.499330 
-0.212139 1.559966 -0.522901 
0.944450 0.018854 0.180241 
0.603217 0.438976 -0.397115 
-0.751844 -0.414748 0.292017 
-0.587430 -0.065392 -0.552887 
-0.773969 0.198236 0.526962 
-0.086538 0.247595 -0.595654 
-0.985738 -0.356355 0.221848 
-0.852144 1.136322 -0.454824 
0.724770 -0.321297 0.491385 
-0.097592 -0.292422 -0.841359 
0.266722 0.668990 -0.299905 
1.038571 -0.287250 0.209347 
-1.298236 0.640628 -0.162179 
-0.423489 0.681519 0.038041 
1.150937 -0.611470 0.062833 
0.084887 -0.815323 -0.094170 
-0.153878 0.658690 0.142471 
0.825265 0.310091 -0.251380 
-0.391306 1.395286 -0.214455 
-0.189189 -0.309059 0.609934 
-1.124449 1.348248 -0.835968 
0.579388 -0.603407 0.500173 
1.184258 -0.282198 -0.022944 
-1.240421 -0.142334 0.071295 
-1.003543 0.352636 0.432522 
0.367515 -0.485425 -0.701666 
-0.830587 -0.805369 -0.338148 
0.372241 -0.092823 -0.733715 
-0.734380 -0.651976 0.295796 
-0.425387 -0.897196 -0.060328 
0.595031 -0.767672 0.455301 
-1.272695 0.389579 0.000996 
-0.463068 -0.129983 0.525395 
-1.288482 0.011160 -0.126899 
0.643621 -0.369043 0.542418 
-0.334640 0.006545 -0.655885 
0.636191 -0.774351 -0.279492 
-0.343488 -0.685436 -0.642166 
-1.307927 0.158197 -0.023609 
-0.619098 -0.882701 0.414313 
-0.844977 1.096504 0.383246 
-0.203131 0.032167 -0.807290 
-0.344777 0.652025 0.101356 
-1.068644 1.103441 -0.549332 
-0.354409 -0.625321 -0.463320 
0.217622 0.157482 -0.697322 
-0.959928 0.286998 -0.437224 
-1.016981 1.506491 -0.957359 
-1.122536 -0.000370 -0.386165 
-0.840565 0.766572 0.453727 
-0.038369 -0.509302 0.667591 
-0.374419 0.570497 -0.353378 
-0.061170 -0.878690 0.542814 
0.620063 -0.757180 0.421508 
-1.255401 0.229248 -0.155559 
1.204383 -0.414357 -0.081665 
0.018400 1.414110 -0.642419 
-1.114508 1.156887 0.086386 
-0.474689 1.135407 -0.345051 
-0.373938 0.544390 -0.381709 
-0.185204 -0.651085 -0.667205 
0.966437 -0.130077 -0.124151 
-0.415133 0.620067 -0.313808 
-0.705638 0.718837 -0.280391 
-0.648372 1.309212 -0.153095 
-0.358756 0.447819 -0.483421 
-0.250187 0.655733 -0.026641 
0.582056 -0.617388 -0.577227 
0.625715 0.456580 -0.362821 
-0.106845 0.166328 -0.660605 
-0.526003 0.015399 -0.563799 
-1.054341 -0.254174 -0.312875 
0.602973 -0.048368 0.615774 
0.121885 -0.705568 -0.668537 
0.157468 -0.816853 -0.133135 
-0.751455 -0.704212 -0.307034 
0.225665 -0.659546 -0.690450 
1.075885 -0.250847 -0.085546 
0.214676 0.216887 0.615659 
0.452091 -0.418457 0.651102 
-0.959681 1.344382 -1.099716 
-0.141327 0.114703 0.680487 
-0.591798 -0.895422 0.263223 
0.193491 -0.803930 -0.372623 
-0.611576 -0.605921 0.430044 
0.750506 0.170044 0.451730 
-0.841823 1.173537 -0.642151 
-0.546693 -0.224614 0.516379 
-0.512388 -0.896675 -0.623882 
-0.231293 -0.893019 -0.563806 
0.157497 -0.213685 -0.801388 
-0.737889 0.034629 -0.566969 
-0.633845 0.788016 0.230411 
0.693563 0.359890 0.395689 
0.742911 -0.835381 -0.167545 
-0.511894 -0.822163 0.532756 
-0.397704 0.455653 0.370770 
0.841345 0.337357 -0.187147 
-0.689533 -0.687634 -0.328794 
-0.531543 -0.895681 -0.310172 
-0.906369 -0.454498 0.070407 
-1.248187 1.052251 0.328382 
0.443295 -0.883313 -0.368515 
-0.160247 0.590447 0.296645 
-0.976735 -0.005400 -0.485160 
0.128803 0.139494 0.721868 
0.416697 -0.878115 0.308293 
-0.328972 1.532349 -0.284753 
-1.277013 0.993081 0.361880 
-1.102307 1.220429 -0.618383 
-0.880945 -0.334182 -0.343232 
-0.117284 0.641890 -0.243015 
-0.674244 0.900161 0.150287 
0.625939 -0.124921 -0.609220 
-0.951608 1.198246 -0.308583 
-0.304912 -0.821629 -0.136368 
-0.369454 1.317886 -0.456105 
-0.766152 -0.714830 0.051782 
0.257286 0.688846 -0.264241 
-1.006325 1.239395 -0.930869 
-0.288989 0.626879 0.130064 
-0.032986 0.561858 0.404911 
0.649322 0.257821 -0.484259 
0.575420 0.232609 -0.538723 
-1.294075 0.904372 -0.008125 
0.861745 -0.169893 0.362337 
-0.921053 1.508258 -1.059104 
0.880996 -0.054118 0.339570 
0.419558 0.516052 0.411863 
-0.235229 -0.826758 0.088066 
1.191221 -0.325083 -0.068918 
0.222105 -0.161891 -0.794015 
0.296458 -0.883239 0.161629 
-1.373596 0.684538 0.015355 
1.102467 -0.516171 0.266727 
0.890270 -0.511668 0.334831 
0.635674 -0.519689 0.513908 
-0.106475 -0.641311 -0.702696 
-1.254599 0.337533 0.123173 
0.040362 0.211352 0.624033 
0.217706 -0.527603 0.712471 
-0.144770 -0.450308 0.610190 
-0.763178 0.636128 0.474588 
0.972863 -0.755755 -0.078298 
0.366106 0.064194 -0.713138 
0.825200 0.111623 0.396170 
-0.631418 -0.585416 0.403869 
-0.330999 -0.234703 -0.694900 
-0.256590 -0.827487 0.044866 
-1.392025 0.668275 0.148448 
0.821498 -0.836452 0.029975 
0.965581 -0.064611 0.062097 
-1.133528 -0.151121 -0.308846 
-0.315512 0.445993 -0.484857 
-0.903431 0.067113 -0.508294 
-1.194881 0.397567 -0.192740 
-0.863343 1.241911 -0.953063 
-0.509220 -0.896508 -0.469887 
-0.890211 1.375859 -1.216426 
0.376216 0.431673 0.458417 
0.278840 -0.314756 -0.749728 
-0.729000 1.123032 0.118750 
-0.275688 -0.053607 0.607542 
-0.713488 0.933378 0.265637 
0.580240 -0.388767 0.578340 
-0.931794 -0.451429 0.034121 
0.871994 0.286959 -0.191918 
-0.243450 0.307210 0.503745 
0.251883 -0.881275 -0.468361 
0.475728 0.692289 -0.101641 
-0.665960 -0.883147 0.380928 
0.097939 -0.814549 0.220214 
-0.825313 0.510461 0.470041 
-1.281177 0.282739 -0.043132 
-0.900576 0.108160 -0.506461 
0.031545 -0.019026 0.767292 
0.937747 -0.145850 -0.235635 
0.185905 -0.880054 0.523481 
-1.036806 0.376473 0.476063 
0.059195 -0.611528 0.664908 
-0.104707 0.488425 0.429908 
0.046570 -0.258107 -0.823399 
-0.915358 -0.897119 -0.072092 
-0.295343 -0.521743 -0.576569 
-0.007494 -0.467941 0.706782 
0.550173 0.648469 0.186149 
-0.373442 0.022983 0.533851 
-0.800000 0.650525 -0.328435 
-0.693038 -0.885514 0.323879 
0.151892 0.267175 -0.582149 
-1.129092 1.124081 0.286152 
-0.382460 -0.857233 -0.489188 
-1.083752 0.963215 -0.295047 
0.756455 -0.184946 -0.489924 
0.727257 -0.561524 0.424531 
-0.171794 0.558433 -0.378964 
-0.000053 0.281371 0.534570 
-0.352137 -0.323964 -0.548154 
-0.771185 -0.893882 0.174167 
0.154213 -0.152770 -0.808738 
-0.246277 -0.819064 -0.269549 
-1.078813 1.055446 0.450516 
-0.640049 1.240041 -0.292988 
-0.950627 -0.189440 0.456025 
-0.327569 -0.813962 -0.430963 
0.107144 -0.869432 -0.479525 
0.391880 -0.881391 0.466752 
0.971434 -0.128046 -0.084051 
0.340108 -0.429472 0.714821 
-0.554696 -0.882460 0.453194 
0.860887 -0.025948 0.367992 
-0.623414 -0.883645 -0.065250 
0.125237 0.138967 -0.747900 
0.234413 -0.887419 -0.018119 
1.143268 -0.590753 -0.111997 
-0.391202 -0.896846 -0.035711 
0.205002 -0.266898 0.758931 
-0.761271 -0.646384 -0.243477 
-0.976022 -0.795371 -0.214864 
-0.378078 0.110382 -0.599718 
0.434412 0.692016 0.209156 
0.796907 -0.432063 0.423528 
-0.963473 1.058929 -0.885378 
-1.164728 -0.256074 -0.003160 
-0.982823 1.239341 -1.018676 
-0.327896 -0.442346 -0.520298 
-0.876653 -0.883571 0.272626 
-1.227087 -0.071671 0.207435 
-0.464344 1.172011 -0.371692 
-1.048355 1.055323 -0.758266 
-0.067140 1.269010 -0.355540 
0.973402 -0.104726 -0.043280 
-0.855208 0.190319 0.519140 
0.477542 0.106347 -0.616636 
0.271778 -0.472850 -0.724373 
-0.621049 0.671937 0.301229 
-0.210747 -0.817686 -0.287149 
0.987380 -0.349845 0.266613 
-0.313334 -0.416371 -0.580849 
-1.007706 1.396346 -1.033697 
0.867394 0.296493 0.160432 
-0.882831 0.443780 -0.410946 
-0.862020 1.053066 -0.515912 
-0.901163 1.053705 -0.721560 
0.341179 0.692895 -0.242890 
-0.208218 0.638768 -0.195172 
0.232132 0.428358 0.504596 
-1.316113 0.866623 0.205852 
-0.072730 -0.856752 -0.643844 
0.323447 -0.144583 -0.767128 
0.796307 0.167407 0.402599 
-0.668303 -0.900115 -0.372400 
0.142889 -0.764796 0.602212 
-0.639343 1.041014 -0.254141 
-0.779499 -0.434762 -0.257262 
-1.096595 1.387898 -0.723003 
0.823052 -0.646274 0.335887 
0.150363 -0.806762 -0.291600 
-0.711155 0.126987 0.541049 
-0.477571 -0.881959 0.474583 
-0.761253 1.032379 0.321095 
0.924920 0.172220 0.114816 
-0.884269 1.515203 -1.126398 
-0.805247 -0.222179 -0.487402 
-0.490425 -0.737275 0.508150 
-1.279252 0.252564 0.170681 
-1.289166 0.438223 0.201260 
0.298540 -0.519108 0.695016 
-1.247453 0.668541 -0.240829 
0.165156 -0.345366 -0.777134 
-0.695879 0.263122 0.498565 
0.438222 -0.020223 0.680775 
-0.691766 0.336015 0.471520 
-0.878190 1.220202 -1.073354 
-1.135398 0.364556 -0.278018 
-0.496367 1.446138 -0.281630 
-0.059348 1.443955 -0.505130 
0.564233 -0.049018 0.638465 
-0.112950 0.607628 -0.313069 
-0.206795 -0.662460 0.656752 
0.154067 -0.806393 -0.330146 
0.821585 0.370148 0.198112 
-0.701541 -0.874079 -0.403469 
-0.101255 -0.819789 -0.053223 
0.536411 -0.717465 -0.546036 
0.049969 0.727546 0.020190 
0.137523 -0.812239 -0.168171 
0.710926 0.509168 0.230833 
-0.629549 -0.401286 0.402915 
0.204207 -0.007855 0.762918 
-1.100308 1.367016 -0.688196 
0.572287 0.378145 -0.443035 
-0.168798 -0.818571 0.269622 
-0.952978 -0.730406 -0.163048 
-0.956655 0.999795 0.503789 
0.763991 0.472137 -0.142898 
0.432073 0.625125 -0.308689 
-1.301088 0.240282 0.012147 
0.025291 -0.812564 -0.244809 
-0.316122 -0.888472 -0.551254 
0.940562 -0.672039 -0.265615 
0.907802 0.203064 0.143273 
-1.334907 0.435128 0.032359 
-0.450428 0.615726 -0.346795 
0.226960 -0.802408 0.363726 
1.021089 -0.596322 -0.260407 
-0.811139 1.011283 -0.234440 
-0.617845 0.159568 -0.568647 
-0.015345 0.576768 -0.378033 
-0.242119 -0.756779 -0.688777 
-0.350669 -0.411075 -0.491817 
-0.508465 1.433047 -0.319851 
0.420991 0.598220 -0.361600 
0.778311 0.000983 0.476847 
0.702370 0.491311 0.270996 
-0.016052 0.227495 0.551543 
-0.818854 0.427638 -0.451336 
-0.314782 1.355901 -0.316919 
-0.624841 0.563273 0.311940 
-0.147007 -0.896980 -0.628611 
-0.412415 -0.819106 -0.287018 
-0.879587 1.355893 -0.875276 
-0.537220 0.711032 -0.088359 
0.463432 -0.494064 0.629367 
0.700804 -0.808332 0.240533 
-1.332919 0.492539 0.521787 
-1.238181 -0.128818 0.120056 
-0.654069 0.576431 -0.396839 
-0.929830 1.077306 -0.860715 
-0.883906 0.229310 0.511215 
-1.017146 1.155383 -0.123820 
-0.564785 0.666915 -0.301691 
-0.348607 -0.101889 -0.708541 
0.637756 -0.814468 -0.246492 
0.870429 0.122168 -0.326641 
-0.037007 1.588891 -0.673132 
0.464739 0.206055 0.597986 
-0.023527 0.665270 0.259611 
0.031381 -0.467384 -0.776147 
-0.645567 -0.549537 0.370068 
-0.708997 1.241286 -0.224599 
-0.372890 -0.438007 0.460006 
0.614737 -0.324851 -0.603111 
1.192786 -0.366852 -0.088499 
-0.662661 1.273967 -0.110869 
0.566361 -0.044262 -0.635706 
-0.304391 0.483062 -0.451753 
-0.374686 -0.516992 -0.381285 
0.926726 -0.238957 -0.232751 
-0.059296 -0.055496 0.760698 
-1.092496 1.152314 -0.298200 
0.075200 -0.807956 -0.358407 
-0.341334 -0.817737 -0.304486 
0.992107 -0.741804 0.118000 
-0.892933 -0.388567 -0.277442 
1.004960 -0.415344 -0.251091 
-0.789374 -0.665049 -0.215675 
-0.846289 1.350782 -1.116383 
-0.810611 0.727485 -0.319454 
-0.741779 0.520828 0.424963 
0.911232 -0.279728 0.266232 
0.113980 -0.807290 -0.345591 
0.734281 0.008210 0.520033 
-0.305037 0.613346 0.162794 
0.592626 -0.841366 0.276832 
-0.326881 -0.360819 -0.591785 
-0.921870 -0.331942 -0.314566 
-1.057122 -0.229691 0.350288 
-1.317308 0.429489 -0.011875 
-0.356916 0.668710 0.007221 
-0.792941 0.069979 -0.546661 
0.732385 -0.816693 0.214743 
0.034376 0.237969 0.560711 
0.903991 -0.795403 0.028667 
-0.153031 -0.819610 -0.159975 
0.323434 -0.230068 -0.764288 
-0.531581 0.647023 -0.332472 
0.360735 0.706714 -0.205401 
-0.646505 -0.122658 -0.536457 
-0.056508 0.696781 -0.113575 
0.926461 0.125230 -0.201265 
-0.776416 1.153457 0.041221 
-0.191175 -0.819695 -0.150330 
-0.983196 0.808262 -0.335737 
1.120419 -0.555481 -0.177962 
-0.333243 0.368335 0.446678 
0.011126 0.417191 -0.526227 
-0.468754 -0.894130 -0.184939 
-1.178440 0.382370 0.424637 
-0.292416 0.241385 -0.588089 
-1.051043 -0.215209 -0.350896 
-0.107150 0.025025 -0.834417 
0.445064 -0.502019 -0.683371 
-0.795050 -0.753920 0.087473 
-0.370967 0.100864 0.549303 
0.399139 -0.863599 -0.558080 
-0.311955 -0.154340 0.504704 
1.013426 -0.455736 -0.273085 
-0.058654 0.662154 0.239141 
1.096702 -0.606657 -0.177188 
-0.727201 1.118394 0.168851 
-0.035676 -0.366420 -0.822419 
-1.345522 0.972928 0.097506 
0.518684 -0.304213 -0.680036 
-1.218219 1.125264 0.041427 
-1.045810 0.359671 0.440986 
0.093265 -0.448570 0.737641 
-0.651882 0.506299 -0.445965 
0.555884 -0.007136 -0.628473 
-0.713082 -0.836369 0.591228 
0.504543 0.260904 0.564971 
0.151902 -0.880557 0.563518 
-1.013523 0.831492 -0.325425 
-1.200431 0.228148 -0.276603 
0.851213 -0.824230 -0.013824 
-0.439170 0.424838 0.396852 
0.361935 -0.454390 0.689639 
-0.428799 0.366122 0.432010 
1.155893 -0.592717 0.122514 
-1.022927 1.265258 -0.883025 
-0.101650 0.556332 0.378508 
0.162930 -0.779507 -0.621572 
-0.525539 -0.380264 0.490133 
1.206748 -0.416591 0.105120 
0.635428 -0.280700 0.541292 
0.969431 -0.091172 -0.102459 
-0.813701 1.158577 0.033669 
0.087063 0.734061 0.030176 
0.428489 -0.882735 0.168935 
1.095394 -0.228962 -0.005963 
-0.739678 -0.604712 -0.033052 
0.568037 -0.881829 -0.133828 
0.096544 0.567352 -0.410572 
-1.383291 0.591166 0.236230 
-0.022644 -0.150871 0.763575 
0.779103 -0.743186 -0.267712 
-0.076554 -0.820479 0.029464 
-0.764848 -0.536203 -0.131363 
-0.078891 1.536657 -0.521713 
0.909928 -0.748715 0.214022 
0.218859 -0.853637 0.156580 
-0.481649 0.695045 0.015169 
-0.251731 -0.559318 -0.645507 
0.943757 -0.182758 -0.212096 
0.503176 0.595629 -0.309075 
-1.087069 0.007801 -0.426435 
-1.019000 1.027979 -0.711901 
-0.382411 -0.013837 0.520932 
-0.734576 -0.524737 -0.263165 
-0.419209 1.305771 -0.224343 
0.625563 0.609524 -0.071173 
-0.437805 1.144592 -0.356652 
-0.598528 1.368541 -0.218854 
-0.455246 1.389571 -0.401866 
0.287966 0.637589 0.353317 
-0.862815 -0.049194 0.546253 
-0.245320 -0.825967 0.190652 
-0.765828 1.136804 0.208500 
-0.663552 -0.546751 0.124390 
0.268280 0.676287 0.298042 
-0.210206 1.443159 -0.408135 
0.115242 -0.877453 0.496947 
0.695850 0.067876 -0.529922 
0.693732 -0.570722 0.445710 
-0.153163 1.210627 -0.286243 
-0.869766 1.007507 -0.440208 
-0.456371 0.645960 -0.304386 
-1.320611 0.827082 0.018412 
-1.066897 0.435491 -0.306370 
-0.174747 0.282508 -0.589881 
0.020460 0.568637 -0.403359 
-0.487430 0.670370 -0.255089 
-1.140244 0.604946 0.666339 
-1.275311 0.420392 0.361412 
-0.664786 0.770050 -0.232390 
-0.142668 0.487133 -0.460010 
-1.113315 1.113719 0.328885 
-1.214328 0.437503 0.576547 
-0.811740 -0.442479 -0.222875 
0.823735 -0.128654 0.418072 
0.117998 -0.818345 0.052407 
-0.485036 -0.610788 0.465625 
-0.500527 0.465897 0.377047 
0.224807 0.092260 0.731994 
-0.180007 0.667614 0.063001 
0.067895 0.403664 -0.554770 
0.940298 -0.054119 0.212306 
-1.329968 0.744078 0.419664 
0.013572 -0.321254 0.727932 
0.774715 -0.042444 0.476185 
0.095482 -0.826148 -0.625713 
-1.056803 0.595033 -0.329867 
0.333927 -0.837246 -0.590822 
-0.194879 -0.367166 -0.784765 
0.257414 0.109415 0.718310 
-0.778925 -0.387399 0.334114 
-1.333737 1.039325 0.188227 
-0.909901 -0.899188 -0.112025 
0.039675 0.727291 0.060215 
-0.585790 0.681121 0.220095 
-0.306405 0.609414 -0.267085 
0.250044 -0.877933 0.447349 
-0.538125 -0.572451 0.461160 
-0.388261 -0.892725 0.034801 
-1.163012 0.764874 0.671301 
0.351082 -0.104178 0.724680 
-1.097668 1.269423 -0.495428 
-0.375093 -0.818149 -0.273671 
-1.170852 0.872426 -0.239941 
-0.078603 -0.152822 -0.846092 
0.608629 -0.087900 0.620183 
-0.245641 1.428373 -0.519610 
0.016445 -0.433350 0.730225 
-0.037147 -0.288274 0.717596 
-1.067029 0.142736 -0.429761 
-0.906677 0.309867 0.469341 
0.329620 0.666483 -0.299258 
-0.418187 1.369480 -0.191484 
-0.918273 1.192916 -0.357298 
-1.048449 -0.318621 0.204916 
-0.519671 -0.478508 -0.399683 
-0.805019 -0.722591 0.534088 
-0.436141 -0.384808 0.499796 
-0.649134 -0.134081 0.543110 
0.091345 0.726235 -0.124513 
-1.071644 0.790015 0.668237 
-0.655987 1.310922 -0.226330 
0.590730 0.637535 0.076001 
-1.091886 0.352755 0.420651 
1.171851 -0.280163 -0.059457 
0.291633 -0.504669 -0.715608 
0.944661 0.127129 -0.125181 
-1.056623 -0.324665 0.160646 
-0.167080 -0.823372 0.047948 
-0.749154 -0.737864 0.158592 
0.905246 0.086855 0.254511 
-0.906797 0.983550 -0.501501 
-0.345667 0.509807 0.334964 
-1.050321 1.113377 0.360204 
-0.137488 -0.821079 -0.027757 
0.086068 0.058147 0.759783 
-0.117147 -0.816454 0.278486 
-0.787166 -0.738345 -0.317121 
-1.056710 -0.177606 0.393427 
-0.906248 -0.901383 -0.165417 
-0.702684 0.646052 0.409899 
0.133525 -0.598948 0.695024 
-0.129234 1.509210 -0.592210 
0.095103 -0.285030 0.762378 
0.181887 -0.208933 0.781905 
1.169058 -0.503080 -0.127354 
-0.549466 -0.806861 0.545626 
-1.305907 0.844228 0.288257 
0.284435 -0.804312 0.307802 
-0.515138 -0.898925 -0.149815 
-0.920256 0.838627 0.524937 
-0.854928 1.092033 -0.563525 
0.931532 0.069011 0.203515 
-1.367945 0.585770 0.382339 
0.415122 0.216335 -0.579713 
0.747038 -0.194140 0.492431 
-0.790402 -0.667151 -0.045391 
0.192914 -0.630648 0.670199 
0.744213 -0.603812 -0.327815 
0.490987 -0.076495 -0.675870 
-0.261322 -0.879407 0.531622 
0.083890 0.140253 0.719091 
-0.303612 -0.878036 0.567549 
0.282262 -0.864010 0.200517 
0.498772 -0.873905 -0.362414 
-0.366256 0.398353 -0.505065 
-0.710016 -0.883687 0.464329 
-0.041371 -0.817948 -0.116710 
0.447000 -0.880552 0.204640 
-1.024499 0.217131 0.464232 
-0.802138 0.519378 -0.394165 
-1.287477 0.067481 0.204637 
0.380522 0.590131 -0.390990 
0.051007 -0.036208 -0.835359 
0.849317 -0.700742 0.315463 
-1.111712 0.587833 -0.311717 
0.384245 -0.496616 0.681989 
-0.963363 -0.422252 -0.100339 
0.986538 -0.492653 -0.289113 
-0.988696 1.458433 -0.886770 
0.609927 0.144062 0.570614 
-0.892263 0.121665 0.534317 
0.353148 -0.665389 -0.647227 
0.393644 0.545024 0.405361 
-0.970180 1.070592 -0.929165 
0.567154 0.625615 0.218885 
-0.645384 -0.275877 -0.450182 
-0.368628 -0.820746 -0.455698 
-0.203307 -0.774916 -0.684988 
0.584923 0.549649 0.327750 
-0.408463 0.537798 -0.397877 
-0.332995 -0.830089 -0.490687 
-0.613709 0.385685 -0.506485 
-0.987800 -0.335234 -0.249985 
-1.109912 1.155556 0.144502 
-0.667013 -0.897657 -0.411530 
0.380685 -0.843160 0.554631 
-0.374298 -0.392606 -0.447976 
0.052848 0.663167 0.301069 
-0.519610 -0.885533 -0.659932 
-1.266203 0.327583 -0.019251 
0.571134 0.150864 0.587830 
-1.318709 1.037600 0.224906 
0.559762 0.532576 -0.350115 
1.021828 -0.688027 -0.173951 
-0.731454 0.303173 0.490656 
0.582486 -0.199575 0.625143 
-0.430568 -0.855678 0.557592 
-0.484431 -0.899042 -0.124482 
-0.536508 -0.153627 -0.521295 
-0.270431 -0.122427 0.596624 
0.667388 -0.232636 -0.586036 
-0.970874 0.510864 -0.339833 
0.104609 0.039496 -0.803879 
-0.991517 0.989253 0.524852 
0.525350 0.643777 0.219256 
-0.244211 -0.463705 -0.706115 
-0.969977 -0.171871 -0.457328 
-1.016808 1.033098 -0.758576 
-0.287270 -0.566082 -0.587242 
-0.742522 -0.793088 -0.364000 
-0.472565 0.684606 0.056449 
0.538103 -0.818995 0.491601 
0.271440 -0.717297 -0.624554 
-1.207819 1.095808 -0.094012 
0.765511 0.013793 -0.501506 
-0.012007 -0.815255 -0.204381 
-0.978716 -0.146545 0.467105 
-0.672941 0.984112 0.059856 
0.926186 -0.056747 0.255347 
-1.110405 0.827556 -0.290274 
-0.777660 -0.883076 0.513879 
-1.144125 0.652627 0.689066 
0.283591 0.741186 -0.112672 
-0.785542 -0.672640 0.313323 
-0.618519 -0.452830 0.407715 
-0.889508 -0.756004 0.432629 
-1.067215 0.245250 0.423739 
-0.698641 -0.792578 0.587785 
-0.903964 0.949437 -0.395458 
-0.159840 0.341764 0.504209 
-0.765867 0.567029 -0.364894 
0.104268 -0.243917 0.781534 
0.671805 -0.792242 -0.254482 
-0.295536 -0.820004 -0.183692 
-0.192221 1.257007 -0.274742 
0.866762 0.111113 0.322092 
-1.227507 0.400047 0.484161 
-0.894720 -0.899858 -0.249838 
-0.779424 -0.474094 0.134633 
-0.635841 0.188808 0.538595 
-0.424514 -0.484583 -0.387156 
-0.552031 0.584834 -0.398441 
0.545622 0.501005 0.388775 
0.397676 -0.880295 0.233355 
0.243262 0.593622 0.390880 
-0.230322 0.466733 0.386727 
-1.064722 0.731746 -0.327423 
0.895495 -0.308594 0.286085 
-0.539760 0.312697 -0.542786 
-0.583706 -0.234017 -0.483760 
0.668736 0.272053 0.456219 
-0.141868 0.186062 0.555795 
-0.257247 -0.574907 0.448971 
0.974986 -0.182193 -0.062018 
-0.298519 1.491913 -0.294435 
-0.135982 1.382536 -0.537926 
0.928519 -0.697640 0.274645 
-0.466399 -0.892585 -0.471595 
-1.146508 0.452368 0.590206 
0.140392 -0.810847 -0.623984 
-1.231343 0.418618 0.540914 
-0.430749 0.674886 -0.195262 
-0.970331 1.245618 -1.064693 
0.163469 -0.805030 -0.403029 
-0.959538 -0.435556 0.056189 
0.508777 -0.448212 0.623408 
-1.214545 -0.088097 -0.192338 
-0.102546 -0.812044 -0.380923 
0.942091 0.109863 -0.161408 
0.595400 -0.818554 0.356675 
0.879151 -0.359661 -0.304642 
-0.264260 1.389201 -0.505102 
0.256805 -0.280583 -0.768017 
-0.004691 -0.273445 0.734757 
-0.819033 -0.329480 -0.382274 
0.024336 -0.540268 0.683911 
0.410466 0.258114 -0.562464 
-0.309909 1.561354 -0.401703 
0.720967 -0.856608 0.108012 
-0.356240 -0.485428 -0.402118 
0.235409 0.225308 0.581099 
0.646582 0.052139 0.565576 
-0.579604 -0.801110 -0.478041 
-0.830525 -0.422545 -0.255479 
0.807187 -0.472583 0.385421 
-0.916622 -0.701690 -0.086115 
-0.276900 0.642226 -0.133505 
0.032265 -0.274128 0.749903 
0.007760 -0.090619 0.776634 
-1.302541 0.248242 0.057036 
-0.790499 1.118242 0.316633 
0.918118 -0.013605 0.261782 
-0.118440 -0.814291 -0.330775 
0.967083 -0.025108 -0.067473 
-0.452526 -0.185331 -0.506524 
-0.330867 -0.409099 0.447624 
0.941548 -0.500230 0.340267 
-1.085410 0.109017 -0.426118 
